ply
format ascii 1.0
element vertex 859
property double x
property double y
property double z
end_header
0.000000000000000 0.000000000000000 -0.000000000000000
0.000000000000000 0.000000000000000 -0.000000000000000
0.000000000000000 0.000000000000000 -0.000000000000000
0.000000000000000 0.000000000000000 -0.000000000000000
0.000000000000000 0.000000000000000 -0.000000000000000
0.635376449653600 0.052125810975345 -0.170820569767664
3.422364857379356 0.268744948805459 0.919842886294359
3.415371148215014 0.268195760133398 0.790927907073029
3.427108264907902 0.269117430076903 0.668213101808660
3.430545465906289 0.269387340049930 0.545017676200164
3.429607137445236 0.269313656779812 0.422399144242241
3.416392617338984 0.268275972115132 0.299815755051944
3.436689527149765 0.269869809188420 0.180663720950642
0.000000000000000 0.000000000000000 0.000000000000000
0.000000000000000 0.000000000000000 -0.000000000000000
0.000000000000000 0.000000000000000 -0.000000000000000
0.000000000000000 0.000000000000000 -0.000000000000000
0.000000000000000 0.000000000000000 -0.000000000000000
0.000000000000000 0.000000000000000 -0.000000000000000
0.000000000000000 0.000000000000000 -0.000000000000000
0.000000000000000 0.000000000000000 -0.000000000000000
0.620147149170598 0.048697734111062 -0.166679465046023
3.413649907099900 0.256074471023958 0.917254695843334
3.418229798673300 0.256418030950700 0.791377809181717
3.422153519740237 0.256712368338541 0.667068247836401
3.427525218989376 0.257115325607493 0.544391938340003
3.410731018394228 0.255855510995360 0.419961757374138
3.417308261407771 0.256348901961430 0.299815755051944
3.429643958459576 0.257274262552943 0.180245033300699
0.000000000000000 0.000000000000000 0.000000000000000
0.000000000000000 0.000000000000000 -0.000000000000000
0.000000000000000 0.000000000000000 -0.000000000000000
0.000000000000000 0.000000000000000 -0.000000000000000
0.000000000000000 0.000000000000000 -0.000000000000000
0.000000000000000 0.000000000000000 -0.000000000000000
0.000000000000000 0.000000000000000 -0.000000000000000
0.000000000000000 0.000000000000000 -0.000000000000000
0.604901845840501 0.045376627483929 -0.162538360324383
3.414522976691164 0.244157049051352 0.917254695843334
3.405497599429872 0.243511685264453 0.788228494420903
3.417154000876459 0.244345181655950 0.665923393864141
3.420520453773976 0.244585901431696 0.543140462619682
3.395763047356771 0.242815611603731 0.418011847879656
3.410233005568588 0.243850292676610 0.299118509109963
3.410599393235825 0.243876491396681 0.179198314175840
0.000000000000000 0.000000000000000 0.000000000000000
0.955414673600064 0.068317369342351 -0.016719405366918
0.000000000000000 0.000000000000000 -0.000000000000000
0.000000000000000 0.000000000000000 -0.000000000000000
0.000000000000000 0.000000000000000 -0.000000000000000
0.000000000000000 0.000000000000000 -0.000000000000000
0.000000000000000 0.000000000000000 -0.000000000000000
0.000000000000000 0.000000000000000 -0.000000000000000
0.620472008179771 0.044367138710234 -0.166679465046023
3.407604344345390 0.232307158556524 0.915184143482513
3.390732569570057 0.231156956343533 0.784629277551401
3.412069365974277 0.232611553193543 0.664778539891882
3.405546304592241 0.232166855481713 0.540637511179038
3.400510572649899 0.231823553718785 0.418499325253276
3.407047340505231 0.232269185844221 0.298769886138972
3.399433560345347 0.231750130385874 0.178570282700924
0.000000000000000 0.000000000000000 0.000000000000000
0.000000000000000 0.000000000000000 -0.000000000000000
0.000000000000000 0.000000000000000 -0.000000000000000
0.000000000000000 0.000000000000000 -0.000000000000000
0.000000000000000 0.000000000000000 -0.000000000000000
0.000000000000000 0.000000000000000 -0.000000000000000
0.000000000000000 0.000000000000000 -0.000000000000000
0.000000000000000 0.000000000000000 -0.000000000000000
0.589777674982856 0.040207008211706 -0.158397255602743
3.396827537747635 0.219662983256646 0.912078314941283
3.385684765789945 0.218942412517397 0.783279571225338
3.410901382132043 0.220573097947196 0.664396921901129
3.390565896464355 0.219258061078795 0.538134559738394
3.393375252339044 0.219439733973755 0.417524370506035
3.387954989407875 0.219089221293242 0.297026771284019
3.404208000791786 0.220140256392263 0.178779626525896
0.000000000000000 0.000000000000000 0.000000000000000
0.000000000000000 0.000000000000000 -0.000000000000000
0.000000000000000 0.000000000000000 -0.000000000000000
0.000000000000000 0.000000000000000 -0.000000000000000
0.000000000000000 0.000000000000000 -0.000000000000000
0.000000000000000 0.000000000000000 -0.000000000000000
0.000000000000000 0.000000000000000 -0.000000000000000
0.000000000000000 0.000000000000000 -0.000000000000000
0.616903979613646 0.039893390829811 -0.165644188865613
3.391788864935744 0.207450693976707 0.910525400670668
3.386428390681844 0.207122833326090 0.783279571225338
3.392054620532571 0.207466948285329 0.660580741993598
3.395253977848807 0.207662629361587 0.538760297598555
3.392139176647726 0.207472119958881 0.417280631819225
3.388699112927056 0.207261716648241 0.297026771284019
3.392994491416771 0.207524433251210 0.178151595050981
0.000000000000000 0.000000000000000 0.000000000000000
0.000000000000000 0.000000000000000 -0.000000000000000
0.000000000000000 0.000000000000000 -0.000000000000000
0.000000000000000 0.000000000000000 -0.000000000000000
0.000000000000000 0.000000000000000 -0.000000000000000
0.000000000000000 0.000000000000000 -0.000000000000000
0.000000000000000 0.000000000000000 -0.000000000000000
0.000000000000000 0.000000000000000 -0.000000000000000
0.582331004667763 0.035616890040344 -0.156326703241923
3.392492339055795 0.195609877514560 0.910525400670668
3.387130753012495 0.195300730408422 0.783279571225338
3.382958155116064 0.195060139927482 0.658672652039833
3.390041867217566 0.195468584197369 0.537821690808314
3.375006517518342 0.194601651388356 0.415086983637932
3.383434689269389 0.195087616713882 0.296503836827533
3.393698215589836 0.195679407918035 0.178151595050981
0.000000000000000 0.000000000000000 0.000000000000000
0.000000000000000 0.000000000000000 -0.000000000000000
0.000000000000000 0.000000000000000 -0.000000000000000
0.000000000000000 0.000000000000000 -0.000000000000000
0.000000000000000 0.000000000000000 -0.000000000000000
0.000000000000000 0.000000000000000 -0.000000000000000
0.000000000000000 0.000000000000000 -0.000000000000000
0.000000000000000 0.000000000000000 -0.000000000000000
0.582451783055628 0.033583958504489 -0.156326703241923
-1.622076544030219 -4.119989786259122 1.186426502749955
-1.609842660352485 -4.088916360048721 1.014529255090831
-1.616798271511788 -4.106583249468328 0.857877243212946
-1.414749801401855 -3.593390677733133 0.611658758307303
-1.526427217457380 -3.877045487487907 0.511607503614809
-1.530578502877217 -3.887589535851420 0.365531185083678
-1.484565645144309 -3.770719278036605 0.212379310433866
-1.473922942757464 -3.743687369281516 0.070228483503629
-1.460736753408739 -3.710195136355539 -0.069600196871887
-1.526271037836879 -3.876648799400867 -0.218345609445562
-0.000000000000000 -0.000000000000000 -0.000000000000000
-0.000000000000000 -0.000000000000000 -0.000000000000000
-0.967529659577637 -2.457474852239999 -0.418305759517577
-0.978853401925064 -2.486236566960140 -0.519382085414955
-1.028014825236176 -2.611104017059937 -0.647859036510331
-1.012736271600019 -2.572297288017803 -0.740740107083414
-1.629308284003236 -4.096351872741495 1.181250121847905
-1.618344039784859 -4.068785940144141 1.010930038221329
-1.629671894944555 -4.097266051092544 0.857114007231439
-1.426554387740892 -3.586594872906443 0.611345889377222
-1.537016694178621 -3.864315473903914 0.510632548867568
-1.540457615919509 -3.872966523159376 0.364659627656202
-1.494766242569974 -3.758090815089797 0.211960622783923
-1.491416210302980 -3.749668277080644 0.070437912380876
-1.463332059662983 -3.679060053825408 -0.069111529491643
-1.536841144212684 -3.863874112107139 -0.217926921795618
-0.000000000000000 -0.000000000000000 -0.000000000000000
-0.000000000000000 -0.000000000000000 -0.000000000000000
-0.977562090678124 -2.457753600215828 -0.418931497377738
-0.987526023606206 -2.482804583943434 -0.519382085414955
-1.044325259318222 -2.625607304498889 -0.652358057597208
-1.329435593695892 -3.342422080212385 -0.963842123961787
-1.637835340457109 -4.076299027224303 1.177109017126264
-1.632536893679362 -4.063112076795023 1.010930038221329
-1.638840430271014 -4.078800528156352 0.854442681296168
-1.437592306215629 -3.577927508717946 0.610720151517061
-1.553456683238013 -3.866294620893263 0.511607503614809
-1.550996150007382 -3.860170764015394 0.363962381714221
-1.500429023083425 -3.734317617976839 0.210913903659064
-1.486602994287583 -3.699906938014873 0.069600196871887
-1.476165460726887 -3.673929657607546 -0.069111529491643
-1.550319218888184 -3.858485995348774 -0.217926921795618
-0.000000000000000 -0.000000000000000 -0.000000000000000
-0.000000000000000 -0.000000000000000 -0.000000000000000
-0.972142338219586 -2.419500159583857 -0.412986987706210
-0.996186612594395 -2.479342348736398 -0.519382085414955
-1.060749383521081 -2.640028318700816 -0.656857078684086
-1.377106935335968 -3.427389507499061 -0.989724028472039
-1.654960289388648 -4.077717251533129 1.179179569487085
-1.647442703804861 -4.059194397165302 1.011379940330017
-1.647161665218991 -4.058501935903665 0.851389737370143
-1.447844250071279 -3.567396458938382 0.609781544726820
-1.557984879411485 -3.838775988244901 0.508682639373086
-1.564461211348486 -3.854733259628083 0.363962381714221
-1.513455083034440 -3.729057392543123 0.210913903659064
-1.500261033325809 -3.696548090380745 0.069635101684761
-1.488228864637482 -3.666901589405260 -0.069076624678768
-1.560022931743192 -3.843797620005987 -0.217403562233189
-0.000000000000000 -0.000000000000000 -0.000000000000000
-0.000000000000000 -0.000000000000000 -0.000000000000000
-0.990239294687027 -2.439886854676687 -0.417054283797256
-0.984162483073472 -2.424913976046430 -0.508696781673868
-1.591746242288327 -3.921961846371457 -0.977187380069750
-0.000000000000000 -0.000000000000000 -0.000000000000000
0.962699626231589 4.282288638743444 1.176073740945854
0.957010547870528 4.256982432148294 1.007330821351828
0.960693483437409 4.273364897359187 0.851389737370143
0.842710161611952 3.748550485004958 0.608530069006498
0.906069451215932 4.030385814153314 0.507220207252224
0.912022122929198 4.056864538932374 0.363788070228725
0.876577245685593 3.899198335491435 0.209448496884261
0.875014899026052 3.892248691835580 0.069635101684761
0.863172592121940 3.839571641870888 -0.068692671737148
0.906804047260959 4.033653450508382 -0.216670858845787
0.000000000000000 0.000000000000000 -0.000000000000000
0.000000000000000 0.000000000000000 -0.000000000000000
0.570183327856724 2.536294312733432 -0.411735511985888
0.569698556067993 2.534137946753117 -0.504880601766338
0.935211736820329 4.160016776034153 -0.984385813808753
0.000000000000000 0.000000000000000 -0.000000000000000
0.975920537790231 4.271368822416462 1.174003188585034
0.968825926620567 4.240317420397724 1.004181506591014
0.974292573714766 4.264243616288823 0.850244883397884
0.852709946900290 3.732105781892230 0.606339986495935
0.921016920811658 4.031068932497989 0.507707684625844
0.925733882302814 4.051713935312954 0.363613758743230
0.886623696350758 3.880538083954418 0.208611121584374
0.885032759103152 3.873574935322225 0.069355863181765
0.870334177799476 3.809242789944452 -0.068204004356904
0.920433731936637 4.028516455444903 -0.216566186933302
0.000000000000000 0.000000000000000 -0.000000000000000
0.000000000000000 0.000000000000000 -0.000000000000000
0.579913163062220 2.538140051875108 -0.412361249846049
0.581601940323447 2.545531422649971 -0.507551927701609
0.946254713276360 4.141528663291683 -0.980786596939252
0.000000000000000 0.000000000000000 -0.000000000000000
-1.685647287043132 -4.031645891683270 1.170897360043804
-1.677831911985995 -4.012953473059715 1.004181506591014
-1.685784528401640 -4.031974138620487 0.849481647416377
-1.472930001848796 -3.522879451909195 0.604775641845533
-1.590440892766190 -3.803936055053141 0.506245252504983
-1.596287268236302 -3.817919120090823 0.362044955373772
-1.527768135429966 -3.654038525138518 0.207564402459515
-1.526546265924342 -3.651116119478459 0.069076624678768
-1.501862344494540 -3.592078365146316 -0.067959670666782
-1.594025351590821 -3.812509182305392 -0.216566186933302
-0.000000000000000 -0.000000000000000 -0.000000000000000
-0.000000000000000 -0.000000000000000 -0.000000000000000
-1.001257124898768 -2.394756130268331 -0.411109774125727
-0.998141962458833 -2.387305442363793 -0.502972511812572
-1.632728903599275 -3.905078379697894 -0.977187380069750
-0.000000000000000 -0.000000000000000 -0.000000000000000
-1.695201573118375 -4.015058974093389 1.167791531502574
-1.689555547382226 -4.001686448572316 1.002831800264950
-1.692212137896175 -4.007978542534866 0.845665467508847
-1.488291567479621 -3.524995793322862 0.606027117565854
-1.605253673608265 -3.802018751115906 0.506732729878603
-1.601854906992771 -3.793968824418821 0.360301840518819
-1.531191479936035 -3.626603579221205 0.206308339509685
-1.533059276514790 -3.631027426823892 0.068797386175772
-1.511280656655625 -3.579445099096307 -0.067820051415284
-1.604993200176483 -3.801401823780318 -0.216252171195844
-0.000000000000000 -0.000000000000000 -0.000000000000000
-0.974425269886306 -2.307911334251213 -0.307598222754592
-0.998085052223040 -2.363949166508208 -0.406416740174520
-1.010287300738556 -2.392850005313008 -0.504880601766338
-1.646350223828710 -3.899355301166025 -0.977187380069750
-0.000000000000000 -0.000000000000000 -0.000000000000000
-1.706292853489212 -4.006158825957634 1.166756255322164
-1.699827984541368 -3.990980135065797 1.001482093938887
-1.702487266660437 -3.997223791604726 0.844520613536587
-1.497036119405311 -3.514850601565198 0.605088510775613
-1.610967172705144 -3.782346239136688 0.504782820384121
-1.612204629874121 -3.785251631343603 0.359953217547828
-1.537881395181902 -3.610750119468265 0.205680308034769
-1.536622986222662 -3.607795535119854 0.068448338047026
-1.519383972608741 -3.567320521467310 -0.067680432163785
-0.110351794768778 -0.259091993305356 -0.014758739660510
-0.000000000000000 -0.000000000000000 -0.000000000000000
-0.952111935968661 -2.235437854516323 -0.298336152655801
-0.073535900384439 -0.172652950955891 -0.029722548357644
-1.017030350892497 -2.387858044510370 -0.504498983775584
-0.000000000000000 -0.000000000000000 -0.000000000000000
-0.000000000000000 -0.000000000000000 -0.000000000000000
-1.715687325510752 -3.989530133403471 1.163650426780933
-1.712208992775718 -3.981441880343555 1.000582289721512
-1.714878585000760 -3.987649549111251 0.843757377555081
-1.504613709366393 -3.498715438060499 0.603211297195130
-1.622591731195511 -3.773052647508894 0.504295343010500
-1.626982046580027 -3.783261556359145 0.360301840518819
-1.537851155777445 -3.576003293512132 0.204005557434995
-1.541307093565705 -3.584039471048926 0.068099289918280
-1.527086935859820 -3.550972986949039 -0.067471003286538
-0.106521244756262 -0.247696482618850 -0.014130708185595
-0.000000000000000 -0.000000000000000 -0.000000000000000
-0.951282634093840 -2.212041015673412 -0.295655027100888
-0.064773308027703 -0.150618973733932 -0.025968121196678
-1.019930049423790 -2.371668546848166 -0.501827657840313
-0.000000000000000 -0.000000000000000 -0.000000000000000
-0.380076640615816 -0.883801604286000 -0.257783768922111
-1.732607277245866 -3.988530706518000 1.165203341051548
-1.715920123949327 -3.950116217440348 0.994283660199883
-1.727918098045265 -3.977736029919565 0.842994141573575
-1.513491800202979 -3.484118183301478 0.601646952544728
-1.634827925418222 -3.763438758475441 0.503807865636880
-0.111929406192064 -0.257665934699881 0.024577919454840
-1.552539065194779 -3.574006536808167 0.204214901259967
-1.550449219767851 -3.569195629704955 0.067924765853907
-1.534514489862734 -3.532513249132448 -0.067226669596416
-0.104245319087912 -0.239976861261850 -0.013712020535651
-0.945446260813815 -2.176454810124528 -0.207604979224922
-0.955429189117180 -2.199435907227060 -0.294436333666836
-1.002698155724699 -2.308250944111327 -0.398595016922508
-1.024704711833091 -2.358910909549403 -0.499919567886547
-0.000000000000000 -0.000000000000000 -0.000000000000000
-0.374076915478228 -0.861139903761772 -0.251572111839650
-1.737984546424311 -3.962997331370270 1.159509322059293
-1.731263486432602 -3.947671796476463 0.995183464417259
-1.740215464536093 -3.968084328571532 0.842230905592069
-1.522470954224809 -3.471577662238107 0.600395476824406
-0.110820377235532 -0.252695491538989 0.033879677466631
-0.106426549289678 -0.242676571370946 0.023183427570877
-1.560192285072289 -3.557590816838276 0.203586869785052
-1.562898591676665 -3.563761807180552 0.067924765853907
-1.533985770864558 -3.497834045074436 -0.066668192590423
-0.105884514976628 -0.241440610705734 -0.013816692448137
-0.947436348563749 -2.160368875963906 -0.206384798826455
-0.945560916556408 -2.156092467375838 -0.289074082557010
-1.004402411698076 -2.290264367062763 -0.396092065481865
-1.030567110171579 -2.349925789507473 -0.498774713914288
-0.000000000000000 -0.000000000000000 -0.000000000000000
-0.366218172282266 -0.835060151967307 -0.244325178576780
-1.748679172770492 -3.949840584772706 1.157438769698473
-1.743455097707458 -3.938040670858720 0.994283660199883
-1.746108367743685 -3.944033762006965 0.838414725684538
-1.532180715941951 -3.460823271226726 0.599456870034165
-0.110898164070463 -0.250491957611818 0.033635938779821
-0.104046744574302 -0.235016268754404 0.022486181628896
-1.566941342415730 -3.539339064939032 0.202854166397650
-1.560757532408658 -3.525371343406810 0.067296479222165
-1.542948058491132 -3.485144077040135 -0.066528573338925
-1.655071686235809 -3.738404058787513 -0.214263404858612
-0.963843874157297 -2.177088691174517 -0.208302225166903
-0.959510202174872 -2.167299981076166 -0.291023992051492
-0.999595978563381 -2.257843992188626 -0.391086162600577
-1.044326989173965 -2.358880456657784 -0.501446039849560
-0.000000000000000 -0.000000000000000 -0.000000000000000
-0.378515527558550 -0.854974437848833 -0.250536835659240
-1.762456035845701 -3.943712491562987 1.157438769698473
-1.756395694262582 -3.930151730716538 0.993833758091196
-1.758262915005458 -3.934329867145712 0.837651489703032
-1.542639955046234 -3.451846932329728 0.598831132174004
-0.104482398859373 -0.233792238302533 0.031442290598528
-0.104866470557057 -0.234651646038672 0.022486181628896
-1.576026773946546 -3.526554052435298 0.202435478747707
-1.567342571051319 -3.507122078677871 0.067052145532043
-1.555104081428326 -3.479736950525779 -0.066528573338925
-1.657517300003761 -3.708899143047258 -0.212902669996295
-0.959243684165325 -2.146425909501032 -0.205687552884473
-0.969499468485812 -2.169374490295601 -0.291755208111923
-1.001023419105236 -2.239913213141861 -0.388583211159933
-1.045345377713951 -2.339089055410093 -0.498011477932782
-0.000000000000000 -0.000000000000000 -0.000000000000000
-0.373615456614876 -0.836010608676590 -0.245360454757190
-1.773033943764355 -3.930492452177645 1.155368217337653
-1.764494581732196 -3.911562246057308 0.990684443330381
-1.768756446292432 -3.921010021462355 0.836125017740019
-1.551430681644839 -3.439238490457405 0.597579656453682
-0.106114111923757 -0.235235606995967 0.031686029285338
-0.105684918774961 -0.234284164166685 0.022486181628896
-1.580114489872340 -3.502825254903968 0.201388759622848
-1.573819292978792 -3.488869953054230 0.066807811841921
-1.563952087380179 -3.466996160245113 -0.066388954087426
-0.000000000000000 -0.000000000000000 -0.000000000000000
-0.967549527699452 -2.144880603727557 -0.205861864369969
-0.976249829698565 -2.164167584362896 -0.291511469425113
-1.013709680990973 -2.247209233555415 -0.390460424740416
-1.054311236356876 -2.337215466923705 -0.498393095923535
-0.000000000000000 -0.000000000000000 -0.000000000000000
-0.389241322779809 -0.862876927225379 -0.253642664200470
-1.785942608724609 -3.922521273104044 1.154850579247448
-1.773292670176938 -3.894737819809241 0.987985030678255
-1.780805500265559 -3.911238482092491 0.835361781758513
-1.565063508222116 -3.437397637958882 0.598205394313843
-1.683808520491492 -3.698200999962913 0.498933091900674
-1.689998110356379 -3.711795388605753 0.356815610808913
-1.587366312883517 -3.486381981188536 0.200760728147933
-1.585988133572243 -3.483355043122209 0.066807811841921
-1.562786635275470 -3.432396871122511 -0.065830477081433
-0.981551849363843 -2.155812841339730 -0.124140888208263
-0.970077078489861 -2.130610445340381 -0.204815995456997
-0.980507941585666 -2.153520074233411 -0.290536514677872
-1.015817894196468 -2.231072420871848 -0.388270342229853
-1.056768544926890 -2.321013608148993 -0.495721769988263
-0.000000000000000 -0.000000000000000 -0.000000000000000
-0.389048905351932 -0.854480205615673 -0.251572111839650
-1.792489633359709 -3.902533102938976 1.150709474525807
-1.784571561606938 -3.885294209864479 0.987085226460880
-1.790488061647739 -3.898175365120862 0.833835309795501
-1.570682188710353 -3.419623255588852 0.596015311803280
-1.692748697586418 -3.685381329043464 0.497958137153433
-1.695644726880882 -3.691686442321883 0.355421118924950
-1.593917012651097 -3.470209137862412 0.200132696673017
-1.592522701834193 -3.467173502945766 0.066598382964674
-1.566648381206908 -3.410841019407339 -0.065516333765562
-0.993697217092106 -2.163435822349370 -0.124768919683178
-0.973810679341595 -2.120139688062249 -0.204118749515015
-0.987643880334317 -2.150256751943127 -0.290536514677872
-0.000000000000000 -0.000000000000000 -0.000000000000000
-0.077847307028163 -0.169485885440037 -0.036253709121544
-1.028121446614025 -2.238382808235507 -0.568676265381291
-0.388654972235439 -0.846163272881955 -0.249501559478830
-1.802851251071693 -3.889241570408925 1.148638922164987
-1.798122897118511 -3.879041222075476 0.987085226460880
-1.799130317437745 -3.881214502307060 0.831545601850982
-1.582609332333609 -3.414119718068863 0.596015311803280
-1.706437618397737 -3.681251084268271 0.498201875840243
-1.700141577585075 -3.667668808058273 0.353678004069997
-1.606020592401403 -3.464624187484846 0.200132696673017
-1.591159796932984 -3.432565400898453 0.066039905958681
-1.582749861431224 -3.414422877637890 -0.065690857829935
-0.979403771307550 -2.112840900945257 -0.122047449958545
-0.977853731415368 -2.109497042387385 -0.203421503573034
-0.992639103852695 -2.141393120936876 -0.289805298617441
-0.000000000000000 -0.000000000000000 -0.000000000000000
-1.071716912360805 -2.311985508946565 -0.495340151997510
-1.035928597063718 -2.234780357658798 -0.568676265381291
-0.391606265442342 -0.844801458736864 -0.249501559478830
-1.814779105582830 -3.879425043696926 1.147603645984577
-1.814129514031390 -3.878036421949477 0.988434932786943
-1.807676041203188 -3.864240933544564 0.829255893906464
-1.592006141664961 -3.403206746592377 0.595076705013038
-1.714230384585574 -3.664483608043151 0.496739443719381
-1.716310675516637 -3.668930613583006 0.354375250011978
-1.613026869186855 -3.448142428590421 0.199504665198102
-1.598895385572461 -3.417933776049941 0.065865381894308
-1.587032886686390 -3.392575496842364 -0.065376714514064
-0.985080417488719 -2.105791073913562 -0.121838106133573
-0.986055518447335 -2.107875532053591 -0.203595815058529
-1.000949046936621 -2.139713196060525 -0.290049037304251
-0.000000000000000 -0.000000000000000 -0.000000000000000
-1.081444479320821 -2.311787028811751 -0.496103387979016
-1.033814361204962 -2.209968866764108 -0.563277440077038
-0.401101381026426 -0.857428178354305 -0.253642664200470
-1.828309769846518 -3.873066647658762 1.147603645984577
-1.816840806448334 -3.848770950970308 0.982586205374002
-1.820315663587541 -3.856132041258839 0.828874275915711
-1.607248881246036 -3.404774256040569 0.596328180733360
-1.721926945841731 -3.647706714494219 0.495277011598519
-1.729107177003324 -3.662917218913709 0.354375250011978
-1.609706526994034 -3.409980499498497 0.197620570773356
-1.610816459927124 -3.412331766387285 0.065865381894308
-1.593743683457308 -3.376165028004802 -0.065167285636817
-0.992424998634034 -2.102339672360302 -0.121838106133573
-0.992556849760393 -2.102618984000147 -0.203421503573034
-1.005022321736365 -2.129025670959716 -0.289074082557010
-0.000000000000000 -0.000000000000000 -0.000000000000000
-1.089507533454790 -2.307997998911828 -0.496103387979016
-1.044849841071020 -2.213395748360214 -0.565077048511789
-0.405741275040364 -0.859516820319400 -0.254677940380880
-1.836160472620216 -3.856517012104902 1.144497817443347
-1.822054266351341 -3.826889522970171 0.978537086395813
-1.833093049534907 -3.850074454666043 0.828874275915711
-1.615133975779697 -3.392291549297156 0.595076705013038
-1.737427122286984 -3.649145787802885 0.496251966345761
-1.737818380669173 -3.649967553998999 0.353678004069997
-1.621005579113852 -3.404623771063255 0.197620570773356
-1.616965518278835 -3.396138367106188 0.065655953017061
-1.596334379289631 -3.352806458115997 -0.064818237508071
-0.992522483821829 -2.084610741180679 -0.121000730833686
-1.000380418246227 -2.101114885692869 -0.203595815058529
-1.010370192921311 -2.122096568152562 -0.288586605183389
-0.000000000000000 -0.000000000000000 -0.000000000000000
-0.076800859810164 -0.161306066010410 -0.034727237158531
-1.047157624339851 -2.199361794810443 -0.562377635859662
-0.405267440361224 -0.851189643558205 -0.252607388020060
-1.846264844490803 -3.843118794415989 1.142427265082527
-1.838776954142675 -3.827532269972713 0.980336694830564
-1.843120558113010 -3.836573760473769 0.827347803952698
-1.651771961451404 -3.438269372937125 0.604149903985372
-1.748435224517933 -3.639480160289257 0.495764488972140
-1.745371972504932 -3.633103804579335 0.352632135157025
-1.622501583231860 -3.377341201666976 0.196364507823525
-1.623614834897319 -3.379658506473600 0.065446524139813
-1.601100709186743 -3.332793908517167 -0.064538999005074
-1.001522832293440 -2.084734067979935 -0.121210074658658
-1.004257526443767 -2.090426509406993 -0.202898569116548
-1.020350349804713 -2.123924754308431 -0.289317821243820
-0.000000000000000 -0.000000000000000 -0.000000000000000
-0.069712124430474 -0.145110262158141 -0.031292675241753
-1.063267077659372 -2.213258678368802 -0.566876656946540
-0.403216880400801 -0.839321820982559 -0.249501559478830
-1.852927601837012 -3.822743506891537 1.138286160360886
-1.847876386927114 -3.812322431087182 0.978087184287125
-1.849650911885536 -3.815983423430271 0.824294860026674
-1.676687807658250 -3.459146176815159 0.608842937936579
-1.761128729024407 -3.633354809439764 0.495764488972140
-1.756305182440049 -3.623403432296231 0.352283512186034
-1.629053908306530 -3.360873487005700 0.195736476348610
-1.624935579249340 -3.352377032180911 0.065027666385318
-1.016129871081847 -2.096360301927408 -0.040664106998871
-1.009664962420999 -2.083022658523853 -0.121314746571144
-1.008072247219424 -2.079736754806346 -0.202201323174567
-1.027758014430664 -2.120350127239430 -0.289317821243820
-0.000000000000000 -0.000000000000000 -0.000000000000000
-0.071930868795549 -0.148399355355622 -0.032055911223260
-1.069286336133537 -2.206026503361396 -0.565976852729164
-0.407829449426609 -0.841386019706914 -0.250536835659240
-1.866260178200340 -3.816252293074254 1.138286160360886
-1.860316512561222 -3.804098292314069 0.977637282178437
-1.862959911116679 -3.809503688580147 0.824294860026674
-1.690487880039788 -3.456821467860490 0.609468675796739
-1.768568324070166 -3.616485525989043 0.494302056851278
-1.768942520746724 -3.617250708111909 0.352283512186034
-1.642530461583180 -3.358754965508477 0.195945820173582
-1.631356716675705 -3.335906152613321 0.064818237508071
-1.024319833949312 -2.094596970353868 -0.040699011811745
-1.010787976358880 -2.066926132620600 -0.120582043183743
-1.015325741744779 -2.076205255521926 -0.202201323174567
-1.036897306370526 -2.120316218146436 -0.289805298617441
-1.063063476924405 -2.173822534973871 -0.383264439348566
-1.103113762184367 -2.255720008191670 -0.488089410173202
-1.082116922170908 -2.212784280480894 -0.568676265381291
-0.407369206701302 -0.833015507355908 -0.248466283298420
-3.206218429243816 1.988714449754867 1.010947190170446
-3.159725738756581 1.959876525134194 0.858413223376189
-3.124866286502645 1.938254325044635 0.714770496680537
-0.000000000000000 0.000000000000000 0.000000000000000
-3.144442826013942 1.950397024571035 0.454328912214390
-3.147535959685729 1.952315596173019 0.324045051535793
-3.005869018628076 1.864444136710298 0.185373957012507
-3.007836331703450 1.865664397907883 0.061781518787984
-2.122478857795260 1.316505555359857 -0.043596111280334
-2.131773849461809 1.322270940546660 -0.131467922082275
-0.157461454680351 0.097668289641792 -0.016210968151064
-2.233499088863980 1.385367843633074 -0.322710021336831
-2.197387543778468 1.362969010521922 -0.409545429475324
-2.213933562300592 1.373231975085013 -0.506407073729350
-2.437691974554343 1.512022140984032 -0.662255903988339
-3.056824738992312 1.896050335608583 -0.963842123961787
-3.194342613703582 1.996822090737686 1.009394275899831
-3.147907907572453 1.967795195945068 0.857063517050126
-3.116416726020504 1.948109678581777 0.714388878689784
-0.000000000000000 0.000000000000000 0.000000000000000
-3.137615512858120 1.961361295885631 0.454328912214390
-3.142391388356476 1.964346753255425 0.324219363021288
-2.992568233271295 1.870690492184781 0.184955269362563
-3.001305622864317 1.876152339789944 0.061781518787984
-2.121261770736306 1.326026314732893 -0.043665920906083
-2.127145275036076 1.329704164224157 -0.131467922082275
-0.136846076589717 0.085544132803059 -0.014119230325121
-2.208450403900137 1.380528980795037 -0.319785157095107
-2.209366823924229 1.381101846003875 -0.412674118776129
-2.195808579925772 1.372626424171669 -0.503354129803325
-2.465448082991129 1.541181329317607 -0.671253946162093
-2.476844118933239 1.548305128818145 -0.782668792390023
1.221419690551282 3.547260351506470 1.005253171178191
1.209891816344137 3.513780973837602 0.857963321267501
1.194614525694362 3.469412500151111 0.713244024717524
0.000000000000000 0.000000000000000 0.000000000000000
1.204024926461537 3.496742288422428 0.454085173527579
1.199369638010940 3.483222349065487 0.322301936680840
1.148330814345321 3.334994842192018 0.184850597450078
1.148429510903887 3.335281477810994 0.061572089910736
0.815749533538872 2.369108668762570 -0.043735730531832
0.827110303424263 2.402102740242495 -0.133142672682049
0.846499392971486 2.458412745013770 -0.227476488571388
0.847923082940170 2.462547440907260 -0.319785157095107
0.852133656099988 2.474775833279254 -0.414551332356612
0.852017743579767 2.474439198877170 -0.508696781673868
0.942789323066276 2.738059007405703 -0.668554533509967
0.939650369559019 2.728942824485410 -0.773351306766332
1.231253212310779 3.535677609805101 1.003182618817370
1.222149829798267 3.509536256100470 0.857963321267501
1.203489512945832 3.455951125253824 0.711335934763759
0.000000000000000 0.000000000000000 0.000000000000000
1.218181991495152 3.498142176550152 0.454816389588010
1.210210585223533 3.475251415826510 0.321953313709849
1.162592450358122 3.338510758761880 0.185269285100021
1.156119020583929 3.319921600591639 0.061362661033489
0.830590627416099 2.385131388820955 -0.044084778660578
0.834176503929274 2.395428623518412 -0.132933328857077
0.859007080253412 2.466732326014377 -0.228522357484360
0.876098731289653 2.515812862234890 -0.327097317699416
0.852971418312681 2.449400265824949 -0.410796905195646
0.863232553008893 2.478866230935817 -0.510223253636881
0.943368929975380 2.708986559507023 -0.662255903988339
0.940275930970048 2.700104676218550 -0.766104373503461
-3.152102128178421 2.016628649493125 1.002664980727166
-3.130412054351541 2.002751934047301 0.857963321267501
-3.072692974971709 1.965824847180670 0.709046226819241
-0.000000000000000 0.000000000000000 0.000000000000000
-3.103527250711917 1.985551772678484 0.452379002719907
-3.103187509605214 1.985334415619185 0.322301936680840
-2.967767458305297 1.898696374064022 0.184641253625106
-2.957911955542260 1.892391093200999 0.061292851407740
-2.130842040866150 1.363254403701175 -0.044154588286327
-2.133293161638955 1.364822563669603 -0.132723985032106
-2.190189129277882 1.401223046177954 -0.227476488571388
-2.234004529607286 1.429254939815978 -0.325634885578554
-2.171487431954548 1.389258212209145 -0.408293953755003
-2.201159499293512 1.408241588588521 -0.507933545692362
-2.416343232304913 1.545910250087901 -0.662255903988339
-2.395402340050922 1.532512840502777 -0.761963268781821
-3.140172574918310 2.024478903354147 1.001112066456550
-3.110299181125642 2.005219434626885 0.854364104397999
-3.067462306201866 1.977602369800102 0.709427844809994
-0.000000000000000 0.000000000000000 0.000000000000000
-3.091572230094928 1.993146111781941 0.451647786659477
-3.096238493537392 1.996154466154632 0.322301936680840
-2.951049847980561 1.902550900451237 0.184013222150191
-2.946246193061893 1.899453969371871 0.061188136969116
-2.146238670017135 1.383686662229252 -0.044573446040822
-2.138587887558154 1.378754179280362 -0.133352016507021
-0.135638354773677 0.087446463904016 -0.014119230325121
-2.212317742636738 1.426288043293499 -0.323197498710451
-2.199829763934269 1.418237005070117 -0.414551332356612
-2.245732220947144 1.447830460084959 -0.519382085414955
-2.430586616529991 1.567006656654185 -0.667654729292591
-2.396532947559165 1.545052151680828 -0.764033821142641
-3.143163017948783 2.041193930513543 1.004217894997781
-3.100363830391586 2.013399813131215 0.853464300180624
-3.060887474469210 1.987763567843456 0.709427844809994
-0.000000000000000 0.000000000000000 0.000000000000000
-3.091605074849495 2.007711810775220 0.452622741406718
-3.091272940961451 2.007496120506366 0.322476248166335
-2.934674281575244 1.905799762016413 0.183385190675275
-2.943285348588626 1.911391854320435 0.061257946594865
-2.128221713594853 1.382083340816315 -0.044294207537826
-2.140704184847696 1.390189552429781 -0.133770704156964
-2.224045559145778 1.444312073726472 -0.232008587194266
-2.267510022587514 1.472538226319790 -0.331972091435622
-2.221621669663914 1.442737981491877 -0.419557235237899
-2.201402126608572 1.429607256700754 -0.510223253636881
-2.405764659112501 1.562321837073879 -0.662255903988339
-2.420559561245094 1.571929758859399 -0.773351306766332
-3.119853727024023 2.041575072116532 0.999041514095730
-3.093316865007040 2.024209836202813 0.853464300180624
-3.055573017976489 1.999510954791838 0.709809462800747
-0.000000000000000 0.000000000000000 0.000000000000000
-3.074611691269905 2.011969513494552 0.451160309285856
-3.070909355932807 2.009546773137412 0.321081756282373
-2.934688860355222 1.920406578623281 0.183803878325219
-2.931575593184525 1.918369313672851 0.061153232156241
-2.170236041301558 1.420162671137950 -0.045271542298313
-2.135838475816614 1.397653535011705 -0.133770704156964
-2.218990419514965 1.452066642261615 -0.232008587194266
-2.179303370581370 1.426096165156592 -0.319785157095107
-2.209960340557714 1.446157524171020 -0.418305759517577
-2.235825202938711 1.463083015844995 -0.519382085414955
-2.410080298619086 1.577112355249213 -0.664955316640465
-2.444154836922448 1.599410108310983 -0.782668792390023
-3.112708292892706 2.052452955970073 0.999041514095730
-3.084605306999457 2.033922451007599 0.853014398071936
-3.037101675643202 2.002599577348323 0.707138136865475
-0.000000000000000 0.000000000000000 0.000000000000000
-3.070884375589206 2.024875163699651 0.451647786659477
-3.055559309463543 2.014770144433351 0.320210198854896
-2.927967511284930 1.930638854672862 0.183803878325219
-2.911505843072862 1.919784384416461 0.060873993653245
-2.131876698167456 1.405713680561824 -0.044573446040822
-0.143397042124433 0.094552927962338 -0.009001784473786
-2.213908242186160 1.459803517822967 -0.232008587194266
-2.257174592311117 1.488332419297855 -0.331972091435622
-2.211495400920394 1.458212542144483 -0.419557235237899
-2.230704468726604 1.470878588651413 -0.519382085414955
-3.213130528124435 2.118669219799582 -0.888556664658267
-2.977232906051779 1.963123397264640 -0.955559914518507
-3.103915851117817 2.062236760953132 0.998523876005525
-3.080733094339367 2.046834174175034 0.853914202289311
-3.023551850479256 2.008843046586031 0.705611664902463
-0.000000000000000 0.000000000000000 0.000000000000000
-3.053876980089839 2.028991014528232 0.450185354538615
-3.053486344038113 2.028731476555985 0.320733133311382
-2.911229128841353 1.934216008752975 0.183175846850303
-2.906452395870075 1.931042354954636 0.060908898466119
-2.210236291873690 1.468477481389571 -0.046318686684550
-2.109393448783335 1.401477656627870 -0.132723985032106
-0.000000000000000 0.000000000000000 -0.000000000000000
-2.251965591165329 1.496202361552492 -0.331972091435622
-2.212973148844351 1.470295844813417 -0.420808710958221
-2.225556554084514 1.478656239266408 -0.519382085414955
-3.204092269876666 2.128793814447586 -0.888106762549579
-2.973580348815824 1.975642060259921 -0.956595190698917
-3.096698391332113 2.073058885359509 0.998523876005525
-3.057375813029039 2.046734713598188 0.849415181202434
-3.009995523590664 2.015016374386963 0.704085192939450
-0.000000000000000 0.000000000000000 0.000000000000000
-3.043476712721662 2.037430076933745 0.449697877164994
-3.041419212819695 2.036052700801366 0.320210198854896
-2.902800027521067 1.943255244462390 0.183071174937818
-2.889723798162506 1.934501471884912 0.060699469588872
-2.161892272230834 1.447260733135291 -0.045411161549812
-0.149372214109146 0.099995981704754 -0.009420472123730
-0.000000000000000 0.000000000000000 -0.000000000000000
-2.246729150529487 1.504054073053529 -0.331972091435622
-2.174997229522415 1.456033737387695 -0.414551332356612
-2.220381521738154 1.486415872921765 -0.519382085414955
-3.177209398921067 2.126956307245575 -0.882707937245326
-2.979508664755004 1.994607201258294 -0.960736295420557
-3.087841621649181 2.082775472462903 0.998006237915320
-3.035672539945677 2.047586982538041 0.845366062224245
-3.004571077543571 2.026608781261567 0.704466810930203
-0.000000000000000 0.000000000000000 0.000000000000000
-3.036346212638553 2.048041380506950 0.449697877164994
-3.037597064548718 2.048885090773665 0.320558821825887
-2.879441087893215 1.942207537529997 0.182024455812959
-2.886269167900118 1.946813135648334 0.060769279214621
-2.117039475823349 1.427961156934476 -0.044573446040822
-0.135775830481451 0.091581954041092 -0.008583096823843
-0.000000000000000 0.000000000000000 -0.000000000000000
-2.241465334207973 1.511887458130334 -0.331972091435622
-2.169901472468962 1.463617023889238 -0.414551332356612
-2.215179434743662 1.494157395068793 -0.519382085414955
-3.174612315589811 2.141303044538185 -0.884057643571390
-2.978934344537073 2.009316586504668 -0.962806847781377
-3.070965784465422 2.087026191994232 0.994900409374090
-3.031730163402292 2.060361691454326 0.846265866441620
-2.994231048759521 2.034877319459058 0.703703574948697
-0.000000000000000 0.000000000000000 0.000000000000000
-3.025895053070681 2.056396154567901 0.449210399791374
-3.023835148562271 2.054996244909575 0.319861575883905
-2.884207235110492 1.960105212915191 0.182757159200360
-2.871186391674541 1.951256256853828 0.060594755150248
-2.194737524050758 1.491542081131929 -0.046318686684550
-0.135455322611146 0.092055342187311 -0.008583096823843
-0.000000000000000 0.000000000000000 -0.000000000000000
-2.236174206338724 1.519702421335584 -0.331972091435622
-2.164779275850846 1.471182476679233 -0.414551332356612
-0.000000000000000 0.000000000000000 -0.000000000000000
-3.173565492684270 2.156752881697803 -0.885857252006140
-2.965511184166401 2.015359319636470 -0.960736295420557
-3.058880003534615 2.094458850860462 0.993347495103475
-3.024519688610502 2.070931852211282 0.846265866441620
-2.979010221090946 2.039770869454803 0.701795484994932
-0.000000000000000 0.000000000000000 0.000000000000000
-3.015422603225792 2.064702947847913 0.448722922417753
-3.003491871696247 2.056533805475404 0.318467083999943
-2.867459826990698 1.963390720521121 0.182129127725445
-2.852807914397101 1.953358346587448 0.060350421460126
-0.000000000000000 0.000000000000000 -0.000000000000000
-0.154908749274210 0.106068234327003 -0.009839159773673
-0.000000000000000 0.000000000000000 -0.000000000000000
-2.230855831392466 1.527498867446419 -0.331972091435622
-2.159630702080417 1.478730003575028 -0.414551332356612
-0.000000000000000 0.000000000000000 -0.000000000000000
-3.149938367883026 2.156807814184956 -0.881358230919263
-2.939330237893606 2.012601417919068 -0.954524638338097
-3.051550342038970 2.105123574513738 0.993347495103475
-3.014064203253840 2.079263619530547 0.845366062224245
-2.963791812518659 2.044583020155908 0.699887395041166
-0.000000000000000 0.000000000000000 0.000000000000000
-2.998393063954084 2.068452824661811 0.447260490296891
-2.999574947101963 2.069268151232913 0.318815706970934
-2.862232861424432 1.974522192646016 0.182233799637930
-2.842679997034558 1.961033575004895 0.060280611834377
-2.184271196331707 1.506827767244641 -0.046318686684550
-0.154537558284834 0.106608320567907 -0.009839159773673
-0.000000000000000 0.000000000000000 -0.000000000000000
-0.000000000000000 0.000000000000000 -0.000000000000000
-2.154455813891420 1.486259512612390 -0.414551332356612
-0.000000000000000 0.000000000000000 -0.000000000000000
-3.143994592005070 2.168896590888702 -0.881808133027951
-2.938647749915589 2.027237293226362 -0.956595190698917
-3.044183498365420 2.115762647900593 0.993347495103475
-2.990785791885096 2.078650275103326 0.840867041137367
-2.958248954242554 2.056036583845272 0.700269013031919
-0.000000000000000 0.000000000000000 0.000000000000000
-2.987894434987934 2.076640729710267 0.446773012923271
-2.995605676818249 2.082000182398408 0.319164329941924
-2.838922577982581 1.973102591878052 0.181187080513072
-2.835817393831332 1.970944432671948 0.060280611834377
-2.178998078525870 1.514443116476940 -0.046318686684550
-0.137764007250455 0.095748479328571 -0.008792440648815
-0.000000000000000 0.000000000000000 -0.000000000000000
-2.220137599811002 1.543035828622687 -0.331972091435622
-0.000000000000000 0.000000000000000 -0.000000000000000
-0.000000000000000 0.000000000000000 -0.000000000000000
-3.094799208938349 2.150941483172729 -0.870110678202070
-2.950589529421407 2.050713144916677 -0.962806847781377
-3.035938755555051 2.124208263693055 0.992829857013270
-2.982644066736628 2.086918638468601 0.840417139028680
-2.951775137078792 2.065320035614524 0.700269013031919
-0.000000000000000 0.000000000000000 0.000000000000000
-2.981355741802903 2.086017213673541 0.446773012923271
-2.990682577045892 2.092543083294926 0.319338641427420
-2.829436976795327 1.979721559504411 0.180977736688100
-2.827973050441849 1.978697268598738 0.060245707021503
-0.000000000000000 0.000000000000000 -0.000000000000000
-2.137214974953555 1.495382508220220 -0.136701517706569
-0.000000000000000 0.000000000000000 -0.000000000000000
-0.000000000000000 0.000000000000000 -0.000000000000000
-0.000000000000000 0.000000000000000 -0.000000000000000
-0.000000000000000 0.000000000000000 -0.000000000000000
-3.116767247467826 2.180762945551771 -0.878208916158449
-2.934635272575112 2.053327487428010 -0.959701019240147
-3.014294466940612 2.124775450636873 0.988171114201424
-2.978526780088590 2.099562816707853 0.841316943246055
-2.944547841549324 2.075611071037760 0.700269013031919
-0.000000000000000 0.000000000000000 0.000000000000000
-2.974056019424385 2.096411378582229 0.446773012923271
-2.968703773677641 2.092638581832215 0.317769838057962
-2.822509221033571 1.989586076550527 0.180977736688100
-2.811242220133889 1.981643970304270 0.060036278144255
-0.000000000000000 0.000000000000000 -0.000000000000000
-2.151571517248263 1.516642249215497 -0.137957580656400
-0.000000000000000 0.000000000000000 -0.000000000000000
-0.000000000000000 0.000000000000000 -0.000000000000000
-0.000000000000000 0.000000000000000 -0.000000000000000
-0.000000000000000 0.000000000000000 -0.000000000000000
-3.113914361001707 2.194997490194574 -0.879558622484512
-2.914818012557554 2.054654521674001 -0.955559914518507
-3.002133962840138 2.131928750387091 0.986618199930809
-2.968002059568847 2.107690396339541 0.840417139028680
-2.922878366811468 2.075646357298031 0.696834451115142
-0.000000000000000 0.000000000000000 0.000000000000000
-2.966720059111826 2.106779999379856 0.446773012923271
-2.954883196477415 2.098374196015636 0.317072592115980
-2.812290223599788 1.997113538681949 0.180768392863128
-2.801047041656286 1.989129330406143 0.059966468518506
-0.000000000000000 0.000000000000000 -0.000000000000000
-2.188603393467351 1.554209957144493 -0.140679050381033
-0.000000000000000 0.000000000000000 -0.000000000000000
-0.000000000000000 0.000000000000000 -0.000000000000000
-0.000000000000000 0.000000000000000 -0.000000000000000
-0.000000000000000 0.000000000000000 -0.000000000000000
-3.112588883669900 2.210366962756510 -0.881358230919263
-2.913928557845884 2.069290759819579 -0.957630466879327
-2.994673852702982 2.142395165113655 0.986618199930809
-2.955872011114508 2.114636256496071 0.839067432702616
-2.912421756832806 2.083551864914645 0.696071215133635
-0.000000000000000 0.000000000000000 0.000000000000000
-2.949661050250762 2.110192923706027 0.445310580802409
-2.950781337636130 2.110994379355625 0.317421215086971
-2.808550620189239 2.009242263306716 0.180977736688100
-2.789207539363134 1.995404187817178 0.059861754079882
-0.000000000000000 0.000000000000000 -0.000000000000000
-2.183164854560056 1.561840139898338 -0.140679050381033
-0.000000000000000 0.000000000000000 -0.000000000000000
-0.000000000000000 0.000000000000000 -0.000000000000000
-0.000000000000000 0.000000000000000 -0.000000000000000
-0.000000000000000 0.000000000000000 -0.000000000000000
-3.089005120462293 2.209879927029942 -0.876859209832386
-2.906687632476662 2.079449661836444 -0.957630466879327
-2.988744502755959 2.153964979877943 0.987135838021014
-2.945310644036840 2.122662534809225 0.838167628485241
-2.908316510820640 2.096001149958444 0.696834451115142
-0.000000000000000 0.000000000000000 0.000000000000000
-2.939056248430788 2.118155040410386 0.444823103428788
-2.946627338303852 2.123611466154055 0.317769838057962
-2.783696510024670 2.006188482044088 0.179826345650755
-2.782225286104164 2.005128182376649 0.059861754079882
-0.000000000000000 0.000000000000000 -0.000000000000000
-2.177699714477973 1.569451292122965 -0.140679050381033
-0.000000000000000 0.000000000000000 -0.000000000000000
-0.000000000000000 0.000000000000000 -0.000000000000000
-0.000000000000000 0.000000000000000 -0.000000000000000
-0.000000000000000 0.000000000000000 -0.000000000000000
-3.078110479838823 2.218370346362621 -0.875959405615010
-2.908814786111725 2.096360253095680 -0.960736295420557
-2.982770850487769 2.165519490700996 0.987653476111219
-2.925267516250347 2.123771533075935 0.834568411615739
-2.894627547530667 2.101526629668057 0.695307979152129
-0.000000000000000 0.000000000000000 0.000000000000000
-2.931644601804878 2.128401356738033 0.444823103428788
-2.939196599072027 2.133884177274870 0.317769838057962
-2.773444193688675 2.013546383163222 0.179617001825783
-2.771972736818527 2.012478091734965 0.059791944454133
-0.000000000000000 0.000000000000000 -0.000000000000000
-2.172208039812109 1.577043321078887 -0.140679050381033
-0.000000000000000 0.000000000000000 -0.000000000000000
-0.000000000000000 0.000000000000000 -0.000000000000000
-0.000000000000000 0.000000000000000 -0.000000000000000
-0.000000000000000 0.000000000000000 -0.000000000000000
-3.071925132968020 2.230246332308314 -0.876409307723698
-2.895226213366534 2.101961266655264 -0.958665743059737
-2.962718998442870 2.166794764528778 0.983512371389579
-2.917836348412039 2.133969683528489 0.834568411615739
-2.893612907586094 2.116253786479827 0.696834451115142
-0.000000000000000 0.000000000000000 0.000000000000000
-2.927401833723173 2.140965434223455 0.445310580802409
